# .PCD v0.7 - Point Cloud Data file format
VERSION 0.7
FIELDS x y z
SIZE 4 4 4
TYPE F F F
COUNT 1 1 1
WIDTH 1544
HEIGHT 1
VIEWPOINT 0 0 0 1 0 0 0
POINTS 1544
DATA ascii
3.4875154 -2.2621241 7.0870004
0.036961634 -2.2467496 7.0800004
0.036972076 -2.2342408 7.0820003
3.5943956 -2.9210055 7.0900002
3.621768 -2.9218295 7.0920005
3.5969305 -2.9098978 7.0950003
3.621768 -2.9086673 7.0920005
3.5964236 -2.8963218 7.0940003
3.6486409 -2.8169291 7.0930004
3.6618221 -2.8169291 7.0930004
3.6750031 -2.8169291 7.0930004
3.689224 -2.8177235 7.0950003
3.6354599 -2.8037651 7.0930004
3.6486409 -2.8037651 7.0930004
3.6618221 -2.8037651 7.0930004
3.6750031 -2.8037651 7.0930004
3.688184 -2.8037651 7.0930004
3.6354599 -2.790601 7.0930004
3.6486409 -2.790601 7.0930004
3.6618221 -2.790601 7.0930004
3.6734486 -2.7236283 7.0900002
3.3313558 -2.6845315 7.0910006
3.7266762 -2.6713712 7.0910006
3.7266762 -2.6582108 7.0910006
3.7403808 -2.6585855 7.0920005
3.7535601 -2.6585855 7.0920005
3.7530308 -2.6450505 7.0910006
3.7530308 -2.6318901 7.0910006
-1.1757941 -2.6198378 7.0940003
3.6349473 -2.5664504 7.0920005
3.2559609 -2.5294578 7.0990005
3.7039742 -2.5027552 7.0980005
3.6997995 -2.2630816 7.0900002
-1.4689177 -2.6253772 7.1090002
3.6669843 -2.6099789 7.1030002
3.1940441 -2.5854323 7.1080003
3.6537848 -2.570431 7.1030002
3.7065833 -2.4913354 7.1030002
3.3242617 -2.3202882 7.1040006
3.3374631 -2.3202882 7.1040006
3.4973574 -2.281698 7.1070004
3.7255437 -2.8912842 7.1140003
3.7244964 -2.8772721 7.1120005
3.7244964 -2.8640728 7.1120005
3.6869197 -2.79965 7.1160002
3.6869197 -2.7864432 7.1160002
3.7006633 -2.7736261 7.1170001
-1.2452095 -2.693239 7.1140003
3.3284731 -2.6928604 7.1130004
3.6879561 -2.6947532 7.1180005
3.2345808 -2.5861597 7.1100001
3.1835201 -2.5744119 7.1140003
3.2350357 -2.5733261 7.1110005
3.4327705 -2.4673994 7.1100001
3.7138891 -2.3905771 7.1170001
3.6009195 -2.8973806 7.1290002
3.6671593 -2.8973806 7.1290002
3.4277341 -2.7510691 7.1270003
3.6926191 -2.7510691 7.1270003
3.4248483 -2.7355371 7.1210003
-1.2330284 -2.6955104 7.1200004
3.7053432 -2.6845567 7.1260004
3.6513486 -2.6573601 7.1240005
3.7440193 -2.6441386 7.1240005
3.2523611 -2.5765829 7.1200004
3.6778259 -2.5780306 7.1240005
3.6645873 -2.5648091 7.1240005
3.6778259 -2.5648091 7.1240005
3.2788236 -2.5501547 7.1200004
3.7043033 -2.4854796 7.1240005
3.3203816 -2.3135989 7.1240005
3.504247 -2.2597606 7.1210003
3.6559615 -2.7931001 7.1330004
-1.2617905 -2.7136703 7.1330004
-1.2485352 -2.7136703 7.1330004
3.6687024 -2.6603441 7.1320004
-1.2349334 -2.633502 7.1310005
3.2171798 -2.5934346 7.1300001
3.6447489 -2.4502778 7.1370006
3.644238 -2.4366906 7.1360002
3.708463 -2.34267 7.1320004
3.708463 -2.3294334 7.1320004
3.7126229 -2.8090923 7.1400003
3.7126229 -2.795841 7.1400003
-1.2370114 -2.7174747 7.1430001
-1.476563 -2.6257789 7.1460004
3.7024632 -2.5859919 7.1460004
3.7024632 -2.5064173 7.1460004
3.673332 -2.4914105 7.1410003
3.1987352 -2.3877237 7.1480002
3.7152226 -2.3867216 7.1450005
3.1987352 -2.3744576 7.1480002
3.1956024 -2.3588793 7.1410003
3.5711663 -2.30845 7.1490002
3.6462808 -2.2922926 7.1400003
3.7167828 -2.2815948 7.1480002
3.6462808 -2.2790413 7.1400003
3.6595492 -2.2790413 7.1400003
3.6421714 -2.9224515 7.1580005
3.6406448 -2.8946683 7.1550002
3.6381009 -2.8793757 7.1500006
3.3357625 -2.855629 7.1570005
3.3357625 -2.8423462 7.1570005
3.4008365 -2.7614913 7.1540003
3.414608 -2.7618771 7.1550002
3.4013119 -2.7485981 7.1550002
3.414608 -2.7485981 7.1550002
3.4559455 -2.7497506 7.1580005
3.3476589 -2.6951051 7.1540003
3.6943462 -2.6958582 7.1560001
3.3476589 -2.6818278 7.1540003
3.6810482 -2.6825774 7.1560001
3.6943462 -2.6825774 7.1560001
3.2413034 -2.6419961 7.1540003
3.228009 -2.6287189 7.1540003
3.2399442 -2.601073 7.1510005
3.5229468 -2.6039829 7.1590004
3.7863748 -2.5092235 7.1540003
3.1371391 -2.4578309 7.1590004
3.1371391 -2.4445443 7.1590004
3.1473625 -2.4421542 7.1520004
3.7188625 -2.3757865 7.1520004
3.7045357 -2.3485825 7.1500006
3.6524091 -2.3359659 7.1520004
3.7066083 -2.3366191 7.1540003
0.050677776 -2.3249655 7.1590004
3.6524091 -2.3226924 7.1520004
3.7066083 -2.3233418 7.1540003
3.7066083 -2.3100646 7.1540003
0.037347957 -2.2835102 7.1540003
0.050642379 -2.2835102 7.1540003
3.5347686 -2.2708673 7.1560001
3.4978044 -2.9373767 7.1620002
3.4978044 -2.9240847 7.1620002
3.3385592 -2.8979051 7.1630001
3.3380928 -2.8842084 7.1620002
3.3380928 -2.8709161 7.1620002
3.6964111 -2.8036726 7.1600003
3.4450483 -2.7782593 7.1630001
3.4583595 -2.7782593 7.1630001
3.4583595 -2.7649655 7.1630001
3.3119369 -2.6984956 7.1630001
3.325248 -2.6984956 7.1630001
3.7373714 -2.6715348 7.1620002
3.6739004 -2.6604695 7.1680002
3.6877353 -2.6608405 7.1690001
3.6739004 -2.6471663 7.1680002
3.6872208 -2.6471663 7.1680002
3.6739004 -2.633863 7.1680002
3.6872208 -2.633863 7.1680002
3.6739004 -2.6205597 7.1680002
3.1916907 -2.6050742 7.1620002
3.5382264 -2.605438 7.1630001
3.6739004 -2.6072564 7.1680002
3.6872208 -2.6072564 7.1680002
3.7005413 -2.6072564 7.1680002
3.7138617 -2.6072564 7.1680002
3.7271821 -2.6072564 7.1680002
3.2582371 -2.5651977 7.1620002
3.2715464 -2.5651977 7.1620002
3.4982929 -2.4990861 7.1630001
3.5116041 -2.4990861 7.1630001
3.4978044 -2.4854453 7.1620002
3.5111136 -2.4854453 7.1620002
3.6698 -2.4183092 7.1600003
3.6713378 -2.4060285 7.1630001
3.2054477 -2.3528526 7.1630001
3.2054477 -2.3395586 7.1630001
0.037394945 -2.3129709 7.1630001
3.6575158 -2.3126478 7.1620002
3.71438 -2.2882979 7.1690001
3.670825 -2.2727716 7.1620002
3.6231444 -2.9285755 7.1730003
3.719043 -2.797399 7.1780005
3.6764631 -2.6889501 7.1730003
3.2374847 -2.6231189 7.1750002
3.2254992 -2.5975721 7.1780005
3.2646062 -2.5835302 7.1760001
3.7169704 -2.5029237 7.1740003
3.6790259 -2.4909976 7.1780005
3.7036388 -2.4896095 7.1740003
3.2237017 -2.409723 7.1740003
3.2237017 -2.3964088 7.1740003
3.2237017 -2.3830943 7.1740003
3.2237017 -2.3697801 7.1740003
3.2237017 -2.3564656 7.1740003
0.077425539 -2.3424983 7.1720004
3.2237017 -2.3431513 7.1740003
0.077414751 -2.3288627 7.1710005
3.3216465 -2.8930678 7.1840005
3.3349967 -2.8930678 7.1840005
3.7504175 -2.8809376 7.1870003
3.7504175 -2.760891 7.1870003
-1.4708599 -2.6527057 7.1830006
-1.4842082 -2.6260436 7.1830006
3.2010493 -2.5993814 7.1830006
3.2806823 -2.5856903 7.1820002
3.6173632 -2.5478294 7.1880002
3.6173632 -2.5344892 7.1880002
3.6297107 -2.5204473 7.1860003
3.6677296 -2.5057149 7.1820002
3.6677296 -2.4923856 7.1820002
3.468981 -2.480092 7.1850004
3.2019405 -2.4400876 7.1850004
3.2152925 -2.4400876 7.1850004
3.6815884 -2.4394083 7.1830006
3.2019405 -2.4267528 7.1850004
3.2152925 -2.4267528 7.1850004
3.2148452 -2.4130821 7.1840005
3.1347442 -2.3997493 7.1840005
3.2006037 -2.385752 7.1820002
3.2006037 -2.3724227 7.1820002
3.3216465 -2.3597505 7.1840005
3.3349967 -2.3597505 7.1840005
3.2944875 -2.3460908 7.1830006
3.3078358 -2.3460908 7.1830006
3.3216465 -2.3464174 7.1840005
3.3354609 -2.3467441 7.1850004
3.2944875 -2.3327599 7.1830006
3.3078358 -2.3327599 7.1830006
3.3234961 -2.3343837 7.1880002
3.3368537 -2.3343837 7.1880002
3.3234961 -2.3210433 7.1880002
3.6040058 -2.3210433 7.1880002
3.2944875 -2.3194287 7.1830006
3.3078358 -2.3194287 7.1830006
3.6821012 -2.3064187 7.1840005
-1.0576508 -2.2540278 7.1870003
3.4356065 -2.8991086 7.1990004
3.4489844 -2.8991086 7.1990004
3.4203267 -2.8841443 7.1950002
3.4327428 -2.8833425 7.1930003
3.4461098 -2.8833425 7.1930003
3.3935857 -2.870791 7.1950002
3.3792753 -2.869993 7.1930003
3.4060092 -2.869993 7.1930003
3.4184253 -2.869195 7.1910005
3.4317884 -2.869195 7.1910005
3.3792753 -2.8566432 7.1930003
3.3935857 -2.8574376 7.1950002
3.4060092 -2.8566432 7.1930003
3.4179499 -2.8554521 7.1900005
3.4313114 -2.8554521 7.1900005
3.4446726 -2.8554521 7.1900005
3.3912275 -2.842108 7.1900005
3.4045887 -2.842108 7.1900005
3.4184253 -2.8425033 7.1910005
3.4317884 -2.8425033 7.1910005
3.4485052 -2.8452702 7.1980004
3.4623625 -2.8456655 7.1990004
3.4757404 -2.8456655 7.1990004
3.4208024 -2.8311243 7.1960006
3.4356065 -2.8323047 7.1990004
3.4891186 -2.8323047 7.1990004
3.4356065 -2.818944 7.1990004
3.4876647 -2.8177691 7.1960006
3.447068 -2.7506108 7.1950002
3.4623625 -2.75214 7.1990004
3.447068 -2.7372575 7.1950002
3.4623625 -2.7387793 7.1990004
3.6856887 -2.7223899 7.1910005
3.3138225 -2.7109275 7.1960006
3.3544059 -2.7113042 7.1970005
3.6877391 -2.7105508 7.1950002
3.673347 -2.7097971 7.1930003
3.3110595 -2.6953232 7.1900005
3.3267326 -2.6971974 7.1950002
3.3401031 -2.6971974 7.1950002
3.3511434 -2.6953232 7.1900005
3.673347 -2.6964476 7.1930003
3.3244207 -2.6819792 7.1900005
3.3377821 -2.6819792 7.1900005
3.3645048 -2.6819792 7.1900005
3.6450925 -2.6819792 7.1900005
3.6584537 -2.6819792 7.1900005
3.6718152 -2.6819792 7.1900005
3.6718152 -2.6686351 7.1900005
3.6718152 -2.6552908 7.1900005
3.7268147 -2.6563988 7.1930003
3.7545922 -2.6571374 7.1950002
-1.4727029 -2.6426816 7.1920004
-1.3524176 -2.6426816 7.1920004
-1.3390524 -2.6426816 7.1920004
3.3147433 -2.6448865 7.1980004
3.6718152 -2.6419468 7.1900005
3.7252605 -2.6419468 7.1900005
3.7386217 -2.6419468 7.1900005
3.7519829 -2.6419468 7.1900005
3.5406623 -2.6304307 7.1950002
3.2179775 -2.6289685 7.1910005
3.6718152 -2.6286027 7.1900005
3.7252605 -2.6286027 7.1900005
3.7386217 -2.6286027 7.1900005
3.7519829 -2.6286027 7.1900005
3.6718152 -2.6152587 7.1900005
-1.0726459 -2.551374 7.1980004
-1.0592697 -2.551374 7.1980004
3.5956433 -2.551374 7.1980004
3.608017 -2.5506651 7.1960006
3.631731 -2.5485384 7.1900005
3.6450925 -2.5485384 7.1900005
3.596143 -2.5383677 7.1990004
3.608017 -2.5373099 7.1960006
3.631731 -2.5351944 7.1900005
3.6748793 -2.5239546 7.1960006
3.7653444 -2.5218503 7.1900005
3.7519829 -2.5085061 7.1900005
3.7653444 -2.5085061 7.1900005
3.7386217 -2.495162 7.1900005
3.7519829 -2.495162 7.1900005
3.7386217 -2.481818 7.1900005
3.7519829 -2.481818 7.1900005
3.139544 -2.4701905 7.1950002
3.7386217 -2.4684739 7.1900005
3.7519829 -2.4684739 7.1900005
3.7653444 -2.4684739 7.1900005
3.139544 -2.4568372 7.1950002
3.7386217 -2.4551299 7.1900005
3.7545922 -2.4568372 7.1950002
3.7962861 -2.4578617 7.1980004
3.8101916 -2.4582031 7.1990004
3.3783357 -2.4020877 7.1910005
3.3916988 -2.4020877 7.1910005
3.4050622 -2.4020877 7.1910005
3.3516095 -2.3887417 7.1910005
3.3649726 -2.3887417 7.1910005
3.3783357 -2.3887417 7.1910005
3.3916988 -2.3887417 7.1910005
3.4050622 -2.3887417 7.1910005
3.4184253 -2.3887417 7.1910005
3.3382461 -2.3753958 7.1910005
3.3783357 -2.3753958 7.1910005
3.3916988 -2.3753958 7.1910005
0.077673838 -2.3633637 7.1950002
3.2041688 -2.3617213 7.1900005
3.3916988 -2.3620498 7.1910005
0.010814763 -2.3487039 7.1910005
0.024177942 -2.3487039 7.1910005
0.037535898 -2.3483772 7.1900005
3.1640849 -2.3483772 7.1900005
0.024177942 -2.3353581 7.1910005
0.037535898 -2.3350332 7.1900005
3.552057 -2.3086662 7.1910005
3.7252605 -2.3083451 7.1900005
3.552057 -2.2953203 7.1910005
0.050939694 -2.283561 7.1960006
0.050939694 -2.2702057 7.1960006
0.18458742 -2.2692592 7.1930003
3.489603 -2.9663246 7.2000003
3.5029831 -2.9663246 7.2000003
3.6367822 -2.9663246 7.2000003
3.489603 -2.9529619 7.2000003
3.5029831 -2.9529619 7.2000003
3.6367822 -2.9529619 7.2000003
3.489603 -2.9395993 7.2000003
3.5029831 -2.9395993 7.2000003
3.4762232 -2.8326981 7.2000003
3.5029831 -2.8326981 7.2000003
3.4762232 -2.8193355 7.2000003
3.5029831 -2.8193355 7.2000003
3.7036815 -2.8193355 7.2000003
3.489603 -2.8059728 7.2000003
3.5029831 -2.8059728 7.2000003
3.7036815 -2.7257972 7.2000003
3.7036815 -2.7124345 7.2000003
3.7304413 -2.7124345 7.2000003
3.7453814 -2.7001963 7.2030005
3.7304413 -2.6990719 7.2000003
3.7304413 -2.6857092 7.2000003
3.7438214 -2.6857092 7.2000003
3.7572012 -2.6723466 7.2000003
3.770581 -2.6723466 7.2000003
-1.2350446 -2.6623077 7.2090001
-1.2208006 -2.6604612 7.2040005
-1.194026 -2.6337209 7.2040005
3.5565026 -2.6322587 7.2000003
-1.0741361 -2.568296 7.2080002
-1.0607413 -2.568296 7.2080002
3.3586006 -2.5675833 7.2060003
3.5029831 -2.5119951 7.2000003
3.5431228 -2.5119951 7.2000003
3.5565026 -2.5119951 7.2000003
3.5698826 -2.5119951 7.2000003
3.6903017 -2.5119951 7.2000003
3.5029831 -2.4986324 7.2000003
3.5832624 -2.4852698 7.2000003
3.706768 -2.4873407 7.2060003
3.6928644 -2.4602518 7.2050004
3.2099621 -2.406096 7.2030005
3.3466024 -2.3278244 7.2090001
3.3036606 -2.3125186 7.2030005
0.17138714 -2.2714677 7.2000003
3.4312603 -2.8263838 7.2180004
3.4164267 -2.8118186 7.2150002
3.3905504 -2.7188389 7.2170005
3.6711745 -2.7180853 7.2150002
3.6562457 -2.7035701 7.2120004
3.6711745 -2.7046947 7.2150002
3.5624301 -2.6768003 7.2120004
3.2809839 -2.6634154 7.2120004
3.2546308 -2.6102378 7.2130003
3.2680349 -2.6102378 7.2130003
3.2675817 -2.583106 7.2120004
3.6964521 -2.5697212 7.2120004
3.6830502 -2.5563362 7.2120004
3.6964521 -2.5563362 7.2120004
3.3239536 -2.5450671 7.2180004
3.6830502 -2.5429513 7.2120004
3.6418333 -2.5154836 7.2100005
3.5490279 -2.4894118 7.2120004
3.5624301 -2.4894118 7.2120004
3.6428435 -2.4894118 7.2120004
3.5773201 -2.477057 7.2150002
3.7902677 -2.462642 7.2120004
3.4284081 -2.4358721 7.2120004
3.4016037 -2.4224873 7.2120004
3.4150059 -2.4224873 7.2120004
3.4284081 -2.4224873 7.2120004
3.347995 -2.3957174 7.2120004
3.6990149 -2.3705902 7.2170005
0.09124691 -2.3418531 7.2110004
0.064455159 -2.328793 7.2120004
3.6245627 -3.0051048 7.2290006
3.6369901 -3.0042737 7.2270002
3.6245627 -2.9916885 7.2290006
3.6514304 -2.9111898 7.2290006
3.6762626 -2.8961699 7.2250004
3.6896889 -2.8961699 7.2250004
3.6737185 -2.8807659 7.2200003
3.6871355 -2.8807659 7.2200003
3.6603014 -2.8673661 7.2200003
3.6737185 -2.8673661 7.2200003
3.4600036 -2.8413534 7.2220001
3.4734244 -2.8413534 7.2220001
3.4734244 -2.82795 7.2220001
3.5271075 -2.8145466 7.2220001
3.2878079 -2.7091935 7.2270002
3.3012381 -2.7091935 7.2270002
3.3146682 -2.7091935 7.2270002
3.3146682 -2.6957808 7.2270002
3.3280981 -2.6957808 7.2270002
3.3683884 -2.6957808 7.2270002
3.3146682 -2.6823678 7.2270002
3.3280981 -2.6823678 7.2270002
3.3415282 -2.6823678 7.2270002
3.3549583 -2.6823678 7.2270002
3.5957043 -2.6816256 7.2250004
3.3146682 -2.6689551 7.2270002
3.3290191 -2.6696935 7.2290006
3.6071327 -2.6667392 7.2210002
3.2345352 -2.6559098 7.2280002
3.2479672 -2.6559098 7.2280002
-1.4800746 -2.6424954 7.2280002
3.4758291 -2.6287169 7.2270002
3.220212 -2.6015315 7.2260003
3.3267167 -2.6008112 7.2240005
3.3401413 -2.6008112 7.2240005
3.6076322 -2.5330739 7.2220001
3.5937135 -2.5059199 7.2210002
3.6076322 -2.4928637 7.2220001
3.6891782 -2.4935539 7.2240005
3.7020903 -2.4932086 7.2230005
3.1937973 -2.4677641 7.2270002
3.7583807 -2.4546909 7.2280002
3.7583807 -2.4412763 7.2280002
3.2058961 -2.426518 7.2240005
3.1669371 -2.3872876 7.2270002
3.1803672 -2.3872876 7.2270002
0.051152062 -2.3601356 7.2260003
3.3679223 -2.3333137 7.2260003
0.037734281 -2.320545 7.2280002
3.691221 -2.2937157 7.2280002
3.5454307 -3.0063519 7.2320004
3.5319915 -2.9929299 7.2320004
3.5454307 -2.9929299 7.2320004
3.639003 -2.9925163 7.2310004
3.5319915 -2.9795079 7.2320004
3.6963277 -2.9551136 7.2380004
3.6295767 -2.9420869 7.2390003
3.643029 -2.9420869 7.2390003
3.6828773 -2.9416804 7.2380004
3.6963277 -2.9416804 7.2380004
3.3456898 -2.9274383 7.2360005
3.3591366 -2.9274383 7.2360005
3.6529458 -2.9258199 7.2320004
3.6953065 -2.9274383 7.2360005
3.4402926 -2.9144115 7.2370005
3.6922424 -2.9115925 7.2300005
3.3336244 -2.9017818 7.2390003
3.6384997 -2.898174 7.2300005
3.3336244 -2.8883469 7.2390003
3.46719 -2.8203926 7.2370005
3.6947958 -2.7390475 7.2350001
3.3165028 -2.724113 7.2310004
-1.3067237 -2.6853371 7.2350001
3.5603464 -2.6853371 7.2350001
3.7630606 -2.6860795 7.2370005
3.3452272 -2.6719096 7.2350001
3.3586721 -2.6719096 7.2350001
3.5732975 -2.6715403 7.2340002
3.7604606 -2.6708016 7.2320004
3.3456898 -2.6588495 7.2360005
3.5742853 -2.6588495 7.2360005
3.7077284 -2.5909858 7.2340002
-1.0778615 -2.5503559 7.2330003
-1.0644203 -2.5503559 7.2330003
-1.0778615 -2.5369322 7.2330003
-1.0644203 -2.5369322 7.2330003
3.520498 -2.5379844 7.2360005
3.3591366 -2.524555 7.2360005
3.7371957 -2.5256016 7.2390003
3.6529458 -2.5097373 7.2320004
3.3980675 -2.4295411 7.2330003
3.4249499 -2.3892696 7.2330003
3.438391 -2.3892696 7.2330003
3.1708813 -2.3768311 7.2360005
0.091537952 -2.3627484 7.2340002
0.064678587 -2.350297 7.2370005
3.2112217 -2.3499722 7.2360005
0.078094862 -2.335897 7.2340002
3.5857489 -2.3352511 7.2320004
3.5986905 -2.3349283 7.2310004
0.051201612 -2.3221502 7.2330003
-0.97033173 -2.2013352 7.2330003
-0.97033173 -2.1879115 7.2330003
3.3354664 -2.9168277 7.2430005
3.2973616 -2.6901622 7.2480001
3.3108306 -2.6901622 7.2480001
3.619621 -2.68942 7.2460003
3.3108306 -2.6767104 7.2480001
3.3354664 -2.647979 7.2430005
3.6201205 -2.6225419 7.2470002
3.269521 -2.595284 7.2460003
3.3921132 -2.5829048 7.2490005
3.7268298 -2.5814795 7.2450004
3.7402933 -2.5814795 7.2450004
3.3229239 -2.5680335 7.2450004
3.6051602 -2.5273461 7.2440004
3.6186218 -2.5273461 7.2440004
3.6186218 -2.5139017 7.2440004
3.1748252 -2.4335721 7.2450004
3.1882887 -2.4335721 7.2450004
0.078245997 -2.3942244 7.2480001
3.3907094 -2.35322 7.2460003
3.3907094 -2.339772 7.2460003
3.6246164 -2.9355297 7.2560005
3.6500747 -2.9208548 7.2530003
3.2861578 -2.8939328 7.2530003
3.4363141 -2.8551235 7.2570004
3.4372611 -2.8424382 7.2590003
3.7604923 -2.8151062 7.2580004
3.7459722 -2.773931 7.2560005
3.7459722 -2.7604644 7.2560005
3.6925449 -2.7473762 7.2570004
-1.3240005 -2.7335312 7.2560005
-1.3105165 -2.7335312 7.2560005
3.2987266 -2.7316475 7.2510004
3.3131146 -2.7324009 7.2530003
3.257853 -2.677449 7.2500005
3.5701885 -2.6792955 7.2550001
3.3693495 -2.6669331 7.2580004
3.5701885 -2.6658309 7.2550001
3.4897766 -2.6527319 7.2560005
3.3679569 -2.5985074 7.2550001
3.7195165 -2.5588183 7.2570004
3.7433908 -2.5567029 7.2510004
3.3400714 -2.543947 7.2530003
3.7195165 -2.5453498 7.2570004
3.7449396 -2.5442979 7.2540002
3.6106348 -2.477325 7.2550001
0.078267597 -2.4083405 7.2500005
3.2322445 -2.3689542 7.2530003
3.4214134 -2.3692808 7.2540002
3.6256154 -2.3571169 7.2580004
3.7159288 -2.3410633 7.2500005
3.393985 -2.3016491 7.2530003
3.558177 -2.3032358 7.2580004
3.7294016 -2.3006971 7.2500005
3.7159288 -2.2872417 7.2500005
3.6266146 -2.9236739 7.2600002
3.7080734 -2.8836491 7.2610002
3.3847015 -2.8705685 7.2620006
3.478688 -2.8432214 7.2610002
3.5490847 -2.8455708 7.2670002
3.5461543 -2.8162699 7.2610002
3.5625892 -2.8185968 7.2670002
3.1962097 -2.803566 7.2630005
3.4815626 -2.7511621 7.2670002
3.3851674 -2.7496479 7.2630005
3.424715 -2.7488906 7.2610002
-1.3256426 -2.6964719 7.2650003
3.604094 -2.6979566 7.2690005
-1.2183076 -2.6844659 7.2690005
3.3460581 -2.6429024 7.2660003
3.5625892 -2.6432662 7.2670002
3.3460581 -2.6294174 7.2660003
3.6976333 -2.6297793 7.2670002
3.7111375 -2.6297793 7.2670002
3.6976333 -2.6162922 7.2670002
3.7111375 -2.6162922 7.2670002
3.73506 -2.5602288 7.2610002
3.5080888 -2.5485065 7.2660003
3.6581266 -2.5495589 7.2690005
3.73506 -2.5467529 7.2610002
3.5080888 -2.5350215 7.2660003
3.7251546 -2.4952528 7.2680001
3.6006234 -2.4797153 7.2620006
3.1705248 -2.4675958 7.2660003
3.1840274 -2.4675958 7.2660003
3.19753 -2.4675958 7.2660003
3.2110326 -2.4675958 7.2660003
3.2245352 -2.4675958 7.2660003
3.7516508 -2.4679356 7.2670002
3.7651553 -2.4679356 7.2670002
3.1840274 -2.4541109 7.2660003
3.19753 -2.4541109 7.2660003
3.2110326 -2.4541109 7.2660003
3.2245352 -2.4541109 7.2660003
3.7651553 -2.4544485 7.2670002
3.2380376 -2.4406257 7.2660003
3.7786596 -2.4409616 7.2670002
3.3460581 -2.3327446 7.2660003
3.3916926 -3.0250585 7.2770004
3.5515268 -3.0229802 7.2720003
3.5810146 -3.0250585 7.2770004
3.4322617 -2.9710364 7.2770004
3.4457846 -2.9710364 7.2770004
3.4322617 -2.957531 7.2770004
3.6361055 -2.9583437 7.2790003
3.6876776 -2.9563117 7.2740002
3.6466238 -2.915411 7.2730002
3.4317899 -2.8355913 7.2760005
3.4713991 -2.8348122 7.2740002
3.4704444 -2.7800477 7.2720003
3.4704444 -2.7665513 7.2720003
-1.3274674 -2.7541909 7.2750006
-1.313587 -2.7534337 7.2730002
3.3749201 -2.7522979 7.2700005
3.7698183 -2.7005546 7.2760005
-1.4767882 -2.6742821 7.2780004
3.3655715 -2.6611404 7.2790003
3.5684721 -2.6611404 7.2790003
3.6316099 -2.6443574 7.2700005
3.2537777 -2.6177325 7.2710004
3.2938602 -2.6173725 7.2700005
3.30919 -2.5918126 7.2740002
3.3227074 -2.5918126 7.2740002
3.5810146 -2.5523648 7.2770004
3.5945375 -2.5523648 7.2770004
3.3632596 -2.5378127 7.2740002
3.539959 -2.4979994 7.2760005
0.092031449 -2.4159808 7.2730002
3.5955255 -2.3639369 7.2790003
3.5955255 -2.3504276 7.2790003
0.0920441 -2.3488133 7.2740002
3.5684721 -2.3234091 7.2790003
-1.0707482 -2.2684367 7.2760005
-0.98907745 -2.2132049 7.2720003
-0.98907745 -2.1997085 7.2720003
3.6386032 -2.9738946 7.2840004
3.6947751 -2.9349496 7.2880006
3.3024688 -2.9218247 7.2890005
3.4075553 -2.8784742 7.2820005
3.7313051 -2.8371503 7.2800002
3.4350917 -2.7437029 7.2830005
3.2578051 -2.6885281 7.2800002
3.6411011 -2.6242127 7.2890005
3.653142 -2.5555215 7.2860003
3.7734451 -2.527436 7.2830005
3.7599111 -2.5139194 7.2830005
3.5298307 -2.5004027 7.2830005
3.6817369 -2.5024626 7.2890005
0.092120029 -2.391284 7.2800002
3.4239063 -2.3668597 7.2880006
3.4239063 -2.3533337 7.2880006
3.6661785 -2.352365 7.2850003
3.3968196 -2.3398077 7.2880006
3.410363 -2.3398077 7.2880006
3.4239063 -2.3398077 7.2880006
3.3674209 -2.3246861 7.2830005
3.380955 -2.3246861 7.2830005
3.3958874 -2.3256435 7.2860003
3.410363 -2.3262818 7.2880006
3.4239063 -2.3262818 7.2880006
3.4374499 -2.3262818 7.2880006
3.4509933 -2.3262818 7.2880006
3.4019463 -3.0206578 7.2990003
3.6968031 -2.950094 7.2920003
3.6576545 -2.9377687 7.2950006
3.4664383 -2.8418269 7.2920003
3.2120521 -2.8310087 7.2990003
3.3982179 -2.7061222 7.2910004
3.411767 -2.7061222 7.2910004
-1.3847729 -2.6929598 7.2920003
-1.3847729 -2.6794264 7.2920003
-1.2233356 -2.6684523 7.2990003
-3.2832448 -2.5992951 7.2950006
-3.2832448 -2.5857561 7.2950006
3.6024411 -2.5715122 7.2930002
3.2116122 -2.5055525 7.2980003
3.6024411 -2.5038359 7.2930002
3.6722174 -2.4781239 7.2970004
3.4547815 -2.4642434 7.2960005
3.7791445 -2.4364936 7.2940001
3.7801807 -2.4236209 7.2960005
3.7666223 -2.3965394 7.2960005
3.6596601 -2.3704321 7.2990003
3.76559 -2.3146598 7.2940001
3.5787671 -3.0075233 7.3000002
3.5695968 -2.9705365 7.3090005
3.6601615 -2.9533305 7.3000002
3.6737273 -2.9533305 7.3000002
3.4192538 -2.9154787 7.3070002
3.4192538 -2.9019175 7.3070002
3.4056752 -2.8747952 7.3070002
3.7697201 -2.8457241 7.3020005
3.4454679 -2.8333356 7.3050003
3.488102 -2.8348873 7.3090005
3.5016844 -2.8348873 7.3090005
3.4464114 -2.8205502 7.3070002
3.45999 -2.8205502 7.3070002
3.5016844 -2.8213222 7.3090005
3.460937 -2.8077574 7.3090005
3.5007262 -2.806989 7.3070002
3.4745195 -2.7941926 7.3090005
3.460937 -2.7806275 7.3090005
3.4745195 -2.7806275 7.3090005
-1.3195471 -2.7794862 7.3060002
3.4192538 -2.7798667 7.3070002
3.4328327 -2.7798667 7.3070002
3.459043 -2.7655482 7.3050003
3.4726181 -2.7655482 7.3050003
3.4861932 -2.7655482 7.3050003
-1.3455949 -2.750107 7.3000002
3.459043 -2.7519908 7.3050003
3.4735689 -2.7527442 7.3070002
3.4871476 -2.7527442 7.3070002
3.5016844 -2.7534976 7.3090005
3.4318929 -2.7384331 7.3050003
3.4454679 -2.7384331 7.3050003
3.459043 -2.7384331 7.3050003
3.4745195 -2.7399328 7.3090005
3.488102 -2.7399328 7.3090005
3.5016844 -2.7399328 7.3090005
3.4454679 -2.7248757 7.3050003
3.459043 -2.7248757 7.3050003
3.4745195 -2.726368 7.3090005
3.4454679 -2.7113183 7.3050003
-1.3729143 -2.6962836 7.3010001
-1.2238384 -2.6831009 7.3020005
3.6762435 -2.6706457 7.3050003
3.6762435 -2.6570883 7.3050003
3.3762059 -2.6424451 7.3020005
3.6762435 -2.6435306 7.3050003
3.6898186 -2.6435306 7.3050003
3.7033935 -2.6435306 7.3050003
3.2970452 -2.6306932 7.3070002
3.6762435 -2.6299732 7.3050003
3.6898186 -2.6299732 7.3050003
3.7033935 -2.6299732 7.3050003
3.6365137 -2.6171319 7.3070002
3.664674 -2.6178484 7.3090005
3.6737273 -2.614625 7.3000002
3.6365137 -2.6035709 7.3070002
3.6747339 -2.6017895 7.3020005
3.6898186 -2.6028581 7.3050003
3.6229351 -2.5900097 7.3070002
3.6365137 -2.5900097 7.3070002
3.7169685 -2.5893006 7.3050003
3.7008588 -2.5739803 7.3000002
3.7848437 -2.5215132 7.3050003
3.7008588 -2.5197873 7.3000002
3.7712686 -2.5079556 7.3050003
3.7848437 -2.5079556 7.3050003
3.7712686 -2.4943981 7.3050003
3.7848437 -2.4943981 7.3050003
3.7169685 -2.4808407 7.3050003
3.7033935 -2.4672832 7.3050003
3.7169685 -2.4672832 7.3050003
3.7033935 -2.4537256 7.3050003
3.7169685 -2.4537256 7.3050003
3.7848437 -2.4537256 7.3050003
3.7033935 -2.4401681 7.3050003
3.7169685 -2.4401681 7.3050003
3.7441187 -2.4401681 7.3050003
3.5016844 -2.4279394 7.3090005
3.7033935 -2.4266107 7.3050003
3.7169685 -2.4266107 7.3050003
3.7441187 -2.4266107 7.3050003
3.7169685 -2.413053 7.3050003
3.7832894 -2.4120624 7.3020005
3.7576935 -2.3994956 7.3050003
3.7707524 -2.3856115 7.3040004
3.3382382 -2.3733549 7.3080006
3.7712686 -2.3723807 7.3050003
3.7712686 -2.3588231 7.3050003
3.6480944 -2.3446236 7.3030005
3.6757402 -2.3449445 7.3040004
0.078904524 -2.3058553 7.3090005
0.078904524 -2.2922902 7.3090005
0.092486985 -2.2922902 7.3090005
0.10601141 -2.2910357 7.3050003
3.3958101 -3.0408552 7.3150005
3.3822167 -3.0272791 7.3150005
3.3958101 -3.0272791 7.3150005
3.3958101 -3.0137031 7.3150005
3.6797664 -3.0124674 7.3120003
3.4365911 -2.986551 7.3150005
3.58465 -2.9853263 7.3120003
3.6147897 -2.9877758 7.3180003
3.4365911 -2.972975 7.3150005
3.58465 -2.9717557 7.3120003
3.4225297 -2.9589944 7.3140001
3.4361215 -2.9589944 7.3140001
3.4497132 -2.9589944 7.3140001
3.4211257 -2.9442122 7.3110003
3.4356515 -2.9450173 7.3130002
3.4492414 -2.9450173 7.3130002
3.5434012 -2.9442122 7.3110003
3.4211257 -2.9306436 7.3110003
3.4347119 -2.9306436 7.3110003
3.6968901 -2.8930998 7.3190002
3.7104912 -2.8930998 7.3190002
3.7104912 -2.8795164 7.3190002
3.5453398 -2.8372142 7.3150005
3.5589335 -2.8372142 7.3150005
3.4225297 -2.8232522 7.3140001
3.4361215 -2.8232522 7.3140001
3.5453398 -2.8236382 7.3150005
3.5589335 -2.8236382 7.3150005
3.5725272 -2.8236382 7.3150005
3.4229975 -2.8100622 7.3150005
3.4365911 -2.8100622 7.3150005
3.5453398 -2.8100622 7.3150005
3.5589335 -2.8100622 7.3150005
3.7764313 -2.8100622 7.3150005
3.7487316 -2.8096781 7.3140001
3.7623234 -2.8096781 7.3140001
3.3690834 -2.7968686 7.3160005
3.5312636 -2.7961037 7.3140001
3.5453398 -2.7964861 7.3150005
3.5589335 -2.7964861 7.3150005
3.7487316 -2.7961037 7.3140001
3.7628376 -2.7964861 7.3150005
3.5312636 -2.7825296 7.3140001
3.5453398 -2.7829101 7.3150005
3.748219 -2.7821491 7.3130002
3.3822167 -2.7693341 7.3150005
3.5589335 -2.7693341 7.3150005
3.6269016 -2.755758 7.3150005
3.6269016 -2.742182 7.3150005
3.6404953 -2.742182 7.3150005
3.6269016 -2.7286057 7.3150005
3.6404953 -2.7286057 7.3150005
3.6540887 -2.7286057 7.3150005
3.6249182 -2.6999767 7.3110003
3.6385045 -2.6999767 7.3110003
3.2598741 -2.6878777 7.3150005
3.6269016 -2.6878777 7.3150005
3.6399977 -2.6875103 7.3140001
3.6535895 -2.6875103 7.3140001
-1.4842958 -2.6743016 7.3150005
3.2594285 -2.6739359 7.3140001
3.6269016 -2.6743016 7.3150005
3.6404953 -2.6743016 7.3150005
3.6540887 -2.6743016 7.3150005
3.6666796 -2.6735704 7.3130002
3.7648954 -2.6757641 7.3190002
3.7784963 -2.6757641 7.3190002
3.6404953 -2.6607256 7.3150005
3.6666796 -2.6599979 7.3130002
3.5997143 -2.6471496 7.3150005
3.6666796 -2.6464257 7.3130002
3.286612 -2.6332133 7.3140001
3.5861208 -2.6335735 7.3150005
3.6656768 -2.6321335 7.3110003
3.5861208 -2.6199973 7.3150005
3.6515913 -2.6182067 7.3100004
3.5453398 -2.6064212 7.3150005
3.5861208 -2.6064212 7.3150005
3.5997143 -2.6064212 7.3150005
3.613308 -2.6064212 7.3150005
3.6249182 -2.6049962 7.3110003
3.6520905 -2.6049962 7.3110003
3.6656768 -2.6049962 7.3110003
3.5453398 -2.5928452 7.3150005
3.5861208 -2.5928452 7.3150005
3.5997143 -2.5928452 7.3150005
3.613308 -2.5928452 7.3150005
3.5453398 -2.5792692 7.3150005
3.5997143 -2.5792692 7.3150005
3.6244226 -2.5775063 7.3100004
3.6385045 -2.5778589 7.3110003
3.5725272 -2.5656931 7.3150005
3.5861208 -2.5656931 7.3150005
3.6269016 -2.5656931 7.3150005
3.5191147 -2.5392351 7.3170004
3.5579605 -2.5242746 7.3130002
3.5608797 -2.4991789 7.3190002
3.451128 -2.4713364 7.3170004
3.6802695 -2.4699852 7.3130002
3.191906 -2.4299326 7.3150005
3.2186534 -2.4296002 7.3140001
3.2730203 -2.3753035 7.3140001
3.6807728 -2.3345809 7.3140001
3.7633519 -2.3352194 7.3160005
0.11975013 -2.3077481 7.3150005
0.13334374 -2.3077481 7.3150005
3.7602658 -2.3061707 7.3100004
0.051753763 -2.2929175 7.3110003
0.065357819 -2.2935445 7.3130002
0.11973376 -2.2938583 7.3140001
0.13332552 -2.2938583 7.3140001
0.11971739 -2.2799723 7.3130002
3.6736991 -2.9914503 7.3270001
3.6883216 -2.9922669 7.3290005
3.6308682 -2.9762263 7.3230004
3.6444767 -2.9762263 7.3230004
3.8203433 -2.9482393 7.3210006
3.5657449 -2.9378588 7.3290005
3.3750701 -2.9106548 7.3290005
3.7679818 -2.8546877 7.3250003
3.469934 -2.8422565 7.3280005
3.4840271 -2.8426445 7.3290005
-1.3494657 -2.7444313 7.3210006
3.469934 -2.7198548 7.3280005
3.3065207 -2.7062547 7.3280005
3.6847987 -2.5273812 7.3220005
3.6847987 -2.513792 7.3220005
3.701436 -2.5022519 7.3280005
3.6736991 -2.4883122 7.3270001
3.6580851 -2.4733627 7.3230004
3.6701894 -2.4723496 7.3200002
0.092626177 -2.445179 7.3200002
0.10635969 -2.4345832 7.3290005
3.7150538 -2.4206507 7.3280005
3.7543695 -2.4196599 7.3250003
3.6580851 -2.4054081 7.3230004
3.6580851 -2.3918173 7.3230004
3.2920043 -2.3792007 7.3260002
3.6036513 -2.3782263 7.3230004
3.2920043 -2.3656042 7.3260002
3.6036513 -2.3646355 7.3230004
-1.0773705 -2.3504026 7.3210006
3.2920043 -2.3520076 7.3260002
3.6711922 -2.3507235 7.3220005
-1.0772233 -2.3364961 7.3200002
-1.0637658 -2.3368154 7.3210006
3.780045 -2.3371344 7.3220005
-1.0772233 -2.3229108 7.3200002
-1.0637658 -2.3232281 7.3210006
3.2920043 -2.3248148 7.3260002
3.4431684 -2.3257668 7.3290005
3.4567881 -2.3257668 7.3290005
3.6313639 -2.3241801 7.3240004
-1.0772233 -2.3093255 7.3200002
-1.0637658 -2.3096411 7.3210006
-1.0637658 -2.2960539 7.3210006
0.10634518 -2.2846489 7.3280005
-0.99560595 -2.2006428 7.3200002
3.3923886 -3.0227671 7.3370004
3.4196575 -3.0227671 7.3370004
3.5676911 -2.9530716 7.3330002
3.5813181 -2.9530716 7.3330002
3.3519421 -2.9414666 7.3380003
3.3655784 -2.9414666 7.3380003
3.3919263 -2.9406648 7.3360004
3.4055591 -2.9406648 7.3360004
3.5813181 -2.9394622 7.3330002
3.3383057 -2.9278479 7.3380003
3.3519421 -2.9278479 7.3380003
3.3655784 -2.9278479 7.3380003
3.2151401 -2.9138319 7.3370004
3.636322 -2.8581951 7.3340001
3.2120728 -2.8430324 7.3300004
3.4304845 -2.84342 7.3310003
3.444108 -2.84342 7.3310003
3.636322 -2.8445837 7.3340001
3.2129493 -2.8302004 7.3320003
3.5969059 -2.8321304 7.3370004
3.5832715 -2.8185136 7.3370004
3.5832715 -2.8048968 7.3370004
-1.311154 -2.7769058 7.3350005
3.5287335 -2.777663 7.3370004
3.484978 -2.7209682 7.3310003
3.6928508 -2.7235665 7.3380003
3.5978866 -2.7103171 7.3390002
-1.1888011 -2.7095785 7.3370004
-1.1751666 -2.7095785 7.3370004
3.2696781 -2.7095785 7.3370004
3.4191916 -2.7092092 7.3360004
3.5978866 -2.6966965 7.3390002
3.3928511 -2.6690915 7.3380003
3.5258479 -2.6393337 7.3310003
3.4328241 -2.6275189 7.3360004
3.7736402 -2.6275189 7.3360004
3.7872727 -2.6275189 7.3360004
3.3083255 -2.6124785 7.3320003
3.3242161 -2.6142602 7.3370004
3.3383057 -2.6009979 7.3380003
3.3519421 -2.6009979 7.3380003
-1.0663812 -2.5877316 7.3390002
3.3519421 -2.587379 7.3380003
3.3655784 -2.587379 7.3380003
3.3655784 -2.5737603 7.3380003
3.651444 -2.5734096 7.3370004
3.3655784 -2.5601416 7.3380003
3.3792148 -2.5601416 7.3380003
3.5292146 -2.5601416 7.3380003
3.3792148 -2.5465229 7.3380003
3.3928511 -2.5465229 7.3380003
3.3792148 -2.5329041 7.3380003
3.3928511 -2.5329041 7.3380003
3.6757047 -2.5304878 7.3310003
3.6757047 -2.5168819 7.3310003
3.2973967 -2.4920478 7.3380003
3.4473965 -2.4920478 7.3380003
3.2973967 -2.4784291 7.3380003
3.444108 -2.4760647 7.3310003
3.2010694 -2.4641385 7.3360004
3.351485 -2.39639 7.3370004
3.2837603 -2.3694792 7.3380003
3.2837603 -2.3558605 7.3380003
3.6383054 -2.3558605 7.3380003
3.2837603 -2.3286228 7.3380003
3.683727 -3.0268869 7.3470001
3.6847298 -3.0140717 7.3490005
3.5749891 -2.9727497 7.3480005
3.5886438 -2.9727497 7.3480005
3.6564207 -2.9723451 7.3470001
3.4789307 -2.9450741 7.3470001
3.5316193 -2.9434707 7.3430004
3.5471961 -2.9450741 7.3470001
3.5462306 -2.9306407 7.3450003
3.5598798 -2.9306407 7.3450003
3.5745022 -2.9314387 7.3470001
3.5174947 -2.9294436 7.3420005
3.5311384 -2.9294436 7.3420005
3.5311384 -2.9158175 7.3420005
3.5447822 -2.9158175 7.3420005
3.5584259 -2.9158175 7.3420005
3.7357953 -2.9021912 7.3420005
3.749439 -2.9021912 7.3420005
3.4657495 -2.8909259 7.3480005
3.6953671 -2.8889585 7.3430004
3.7085075 -2.8885651 7.3420005
3.7357953 -2.8885651 7.3420005
3.749439 -2.8885651 7.3420005
3.6953671 -2.8753304 7.3430004
3.7085075 -2.874939 7.3420005
3.7236722 -2.8761137 7.3450003
3.7373216 -2.8761137 7.3450003
3.7115383 -2.8636513 7.3480005
3.4652777 -2.822355 7.3470001
3.4375038 -2.8083375 7.3460002
3.4511549 -2.8083375 7.3460002
3.4652777 -2.8087196 7.3470001
3.4789307 -2.8087196 7.3470001
3.4652777 -2.7950842 7.3470001
3.7085075 -2.7659295 7.3420005
3.7085075 -2.7523034 7.3420005
3.3273878 -2.7394233 7.3440003
3.4502153 -2.7394233 7.3440003
3.6827242 -2.7397964 7.3450003
3.6948638 -2.7386773 7.3420005
3.7085075 -2.7386773 7.3420005
3.3273878 -2.7257934 7.3440003
3.6812201 -2.7250512 7.3420005
3.7085075 -2.7250512 7.3420005
3.7221515 -2.7250512 7.3420005
3.7357953 -2.7250512 7.3420005
3.506237 -2.7132716 7.3470001
3.7085075 -2.7114248 7.3420005
3.7221515 -2.7114248 7.3420005
3.7357953 -2.7114248 7.3420005
3.7085075 -2.6977987 7.3420005
3.7221515 -2.6977987 7.3420005
3.7357953 -2.6977987 7.3420005
3.7221515 -2.6841726 7.3420005
3.7357953 -2.6841726 7.3420005
3.7357953 -2.6705463 7.3420005
3.5457478 -2.6303842 7.3440003
3.5613341 -2.6318171 7.3480005
3.7352862 -2.5339394 7.3410006
3.6549277 -2.5213451 7.3440003
3.6685753 -2.5213451 7.3440003
3.5574567 -2.5063496 7.3400002
3.7767265 -2.5070324 7.3420005
3.5048053 -2.4940853 7.3440003
3.7231653 -2.4940853 7.3440003
3.7767265 -2.4934061 7.3420005
3.5052824 -2.4807932 7.3450003
3.5189319 -2.4807932 7.3450003
3.7767265 -2.47978 7.3420005
3.5052824 -2.4671617 7.3450003
3.5189319 -2.4671617 7.3450003
3.4916332 -2.4535298 7.3450003
3.5052824 -2.4535298 7.3450003
3.5189319 -2.4535298 7.3450003
0.13383593 -2.4389014 7.3420005
3.5052824 -2.439898 7.3450003
0.12029035 -2.4272575 7.3480005
0.13383593 -2.4252753 7.3420005
3.3956254 -2.425936 7.3440003
0.011049375 -2.4132917 7.3470001
3.2182078 -2.3986762 7.3440003
3.7777553 -2.3986762 7.3440003
0.10663542 -2.3863456 7.3480005
3.7777553 -2.3850465 7.3440003
-1.0671078 -2.3577867 7.3440003
3.6003377 -2.3577867 7.3440003
3.7914028 -2.3577867 7.3440003
0.079282373 -2.3305268 7.3440003
0.14760022 -2.3045218 7.3480005
0.16125517 -2.3045218 7.3480005
0.1749101 -2.3045218 7.3480005
3.5632727 -3.0562363 7.3520002
3.5769351 -3.0562363 7.3520002
3.5632727 -3.0425916 7.3520002
3.5769351 -3.0425916 7.3520002
3.6584115 -3.0285347 7.3510003
3.6720719 -3.0285347 7.3510003
3.6584115 -3.0148919 7.3510003
3.6720719 -3.0148919 7.3510003
3.699393 -3.0148919 7.3510003
3.5086234 -3.0016572 7.3520002
3.5222857 -3.0016572 7.3520002
3.535948 -3.0016572 7.3520002
3.5496104 -3.0016572 7.3520002
3.5086234 -2.9880126 7.3520002
3.5222857 -2.9880126 7.3520002
3.535948 -2.9880126 7.3520002
3.5496104 -2.9880126 7.3520002
3.5632727 -2.9880126 7.3520002
3.5759621 -2.9871995 7.3500004
3.6179223 -2.9880126 7.3520002
3.6315846 -2.9880126 7.3520002
3.5086234 -2.9743679 7.3520002
3.5222857 -2.9743679 7.3520002
3.535948 -2.9743679 7.3520002
3.5496104 -2.9743679 7.3520002
3.5632727 -2.9743679 7.3520002
3.6042597 -2.9743679 7.3520002
3.5354669 -2.9603202 7.3510003
3.5491273 -2.9603202 7.3510003
3.4011736 -2.9350297 7.3560004
3.4143794 -2.9346306 7.3550005
3.7009027 -2.9342318 7.3540006
3.7145689 -2.9342318 7.3540006
3.4011736 -2.9213777 7.3560004
3.4129868 -2.9197888 7.3520002
3.4120581 -2.9053535 7.3500004
3.562788 -2.9057488 7.3510003
3.5769351 -2.9061441 7.3520002
3.4666929 -2.8780715 7.3500004
3.7267141 -2.8648202 7.3510003
3.6315846 -2.7833416 7.3520002
3.5246811 -2.7442727 7.3570004
3.4954362 -2.7154872 7.3530002
3.5213275 -2.7143793 7.3500004
-1.4779402 -2.6874628 7.3510003
3.2790368 -2.6353986 7.3580003
3.4294453 -2.6353986 7.3580003
3.5910857 -2.6336079 7.3530002
3.5910857 -2.6199613 7.3530002
3.4294453 -2.6080871 7.3580003
3.5774214 -2.6063147 7.3530002
3.5910857 -2.6063147 7.3530002
3.4294453 -2.5944312 7.3580003
3.5774214 -2.5926681 7.3530002
3.5910857 -2.5926681 7.3530002
3.6047499 -2.5926681 7.3530002
3.2243426 -2.4578724 7.3580003
3.2380161 -2.4578724 7.3580003
0.12035584 -2.4422233 7.3520002
0.10667896 -2.4282482 7.3510003
3.3888855 -2.4172332 7.3590002
0.065724239 -2.4019425 7.3540006
3.3574235 -2.373354 7.3500004
3.6584115 -2.360034 7.3510003
3.6477258 -2.3483064 7.3570004
0.065688498 -2.3324308 7.3500004
0.12037221 -2.3333828 7.3530002
0.18877032 -2.3343349 7.3560004
3.6897438 -2.3352869 7.3590002
3.7581205 -2.321629 7.3590002
0.065697432 -2.3191054 7.3510003
0.14768058 -2.3194208 7.3520002
0.16134295 -2.3194208 7.3520002
-1.0966381 -2.2943137 7.3590002
-1.0140343 -2.2521157 7.3550005
-0.99982238 -2.250891 7.3510003
-1.0140343 -2.2384655 7.3550005
-1.0554684 -2.2257228 7.3580003
-1.0413702 -2.2248151 7.3550005
-1.0277022 -2.2248151 7.3550005
-1.0140343 -2.2248151 7.3550005
3.3893459 -3.0322425 7.3600001
3.4303775 -3.0185831 7.3600001
3.5832598 -2.9249518 7.3650002
3.4582019 -2.9097018 7.3610005
3.4345725 -2.8581588 7.3690004
3.4345725 -2.8171301 7.3690004
3.4345725 -2.8034537 7.3690004
3.7338116 -2.7745943 7.3650002
3.5167363 -2.7487485 7.3690004
3.5167363 -2.7350724 7.3690004
-1.1662815 -2.706985 7.3670006
3.5289927 -2.5015569 7.3660002
3.679565 -2.5015569 7.3660002
3.7206302 -2.4878862 7.3660002
3.5431621 -2.4745514 7.3670006
3.7206302 -2.4742155 7.3660002
0.079541467 -2.4612129 7.3680005
3.3223135 -2.4458773 7.3630004
3.3223135 -2.4322124 7.3630004
0.0384495 -2.4192042 7.3650002
3.6922505 -2.4188757 7.3640003
3.6922505 -2.4052086 7.3640003
3.7723083 -2.4039021 7.3600001
3.7723083 -2.3902426 7.3600001
-1.083257 -2.3769059 7.3610005
3.2552252 -2.3785205 7.3660002
3.6111231 -2.3785205 7.3660002
3.2552252 -2.3648498 7.3660002
3.7859857 -2.3629234 7.3600001
3.6780665 -2.3365562 7.3630004
-1.0969361 -2.2812757 7.3610005
-1.083257 -2.2812757 7.3610005
-1.0969361 -2.2676144 7.3610005
-1.083257 -2.2676144 7.3610005
-1.0422196 -2.2676144 7.3610005
-1.0285406 -2.2676144 7.3610005
-1.0695779 -2.253953 7.3610005
-1.0558988 -2.253953 7.3610005
-1.0422196 -2.253953 7.3610005
-1.0285406 -2.253953 7.3610005
-1.0695779 -2.2402916 7.3610005
-1.0558988 -2.2402916 7.3610005
-1.0422196 -2.2402916 7.3610005
-1.0285406 -2.2402916 7.3610005
-1.0148615 -2.2129686 7.3610005
3.6292403 -2.9836729 7.3750005
3.6429453 -2.9836729 7.3750005
3.3546832 -2.9558973 7.3740005
3.7378671 -2.9554963 7.3730001
3.3007653 -2.9430096 7.3760004
3.7378671 -2.9418128 7.3730001
3.5993881 -2.9269373 7.3700004
3.4099586 -2.9152358 7.3750005
3.686059 -2.9168169 7.3790002
3.4501381 -2.9007616 7.3730001
3.686059 -2.9031219 7.3790002
3.7094581 -2.8726146 7.3710003
3.7231557 -2.8589346 7.3710003
3.805342 -2.8589346 7.3710003
3.6449213 -2.8483427 7.3790002
3.6566505 -2.8057365 7.3750005
3.5886116 -2.7787385 7.3760004
-1.3040683 -2.7225041 7.3720002
3.4907687 -2.7225041 7.3720002
3.7129807 -2.7247198 7.3780003
-1.2086632 -2.6962371 7.3750005
3.5333045 -2.6962371 7.3750005
-1.0714668 -2.6137583 7.3740005
3.3546832 -2.6000726 7.3740005
3.4364367 -2.5860364 7.3730001
3.2587605 -2.5316448 7.3740005
3.7404022 -2.5330181 7.3780003
3.6424515 -2.5179594 7.3740005
3.75106 -2.5172763 7.3720002
3.8596089 -2.5165935 7.3700004
3.4780126 -2.5042737 7.3740005
3.8617036 -2.5042737 7.3740005
3.4506061 -2.4905882 7.3740005
0.13451038 -2.4648871 7.3790002
0.1481024 -2.462883 7.3730001
0.024779784 -2.4208465 7.3700004
0.0659298 -2.4231458 7.3770003
3.8079231 -2.3269925 7.3760004
3.6895559 -3.0703702 7.3860002
3.3171685 -3.055007 7.3820004
3.3322401 -3.0562484 7.3850002
3.6895559 -3.0566623 7.3860002
3.3171685 -3.0413065 7.3820004
3.331789 -3.0421305 7.3840003
3.6184766 -3.0271959 7.3810005
3.6626003 -2.9885275 7.3870006
3.2782328 -2.9611082 7.3870006
3.2919602 -2.9611082 7.3870006
3.7287121 -2.9591041 7.3820004
3.3034503 -2.9317031 7.3820004
3.7698662 -2.8906019 7.3820004
3.6189671 -2.8358004 7.3820004
-1.3471742 -2.80878 7.3830004
3.3446047 -2.7672982 7.3820004
-1.3616314 -2.7554629 7.3870006
3.3583229 -2.753598 7.3820004
3.372041 -2.753598 7.3820004
3.4680676 -2.7398975 7.3820004
3.7027798 -2.7273052 7.3850002
3.714994 -2.7124968 7.3820004
3.5503764 -2.6713955 7.3820004
3.6189671 -2.6713955 7.3820004
3.3025553 -2.6432784 7.3800001
3.3162696 -2.6432784 7.3800001
3.5939634 -2.6457853 7.3870006
3.744458 -2.5905962 7.3860002
3.7160003 -2.5761905 7.3840003
3.7160003 -2.5624864 7.3840003
3.6062257 -2.5487821 7.3840003
3.6199474 -2.5487821 7.3840003
3.7551305 -2.5337048 7.3800001
3.7973025 -2.5343914 7.3820004
0.12089606 -2.4805975 7.3850002
0.13454685 -2.4792538 7.3810005
3.7973025 -2.4795897 7.3820004
0.12089606 -2.4668915 7.3850002
0.16206715 -2.4668915 7.3850002
3.7047853 -2.4682276 7.3890004
0.14838362 -2.4538498 7.3870006
0.12087969 -2.4254451 7.3840003
0.13469267 -2.4270873 7.3890004
3.3848417 -2.4241312 7.3800001
3.6630964 -2.3993359 7.3880005
3.6768255 -2.3993359 7.3880005
-1.0727746 -2.3840098 7.3830004
3.7973025 -2.383687 7.3820004
0.093410715 -2.3425858 7.3820004
0.10712884 -2.3425858 7.3820004
0.093448684 -2.3298318 7.3850002
0.10712884 -2.3288853 7.3820004
3.6410508 -3.0208464 7.3990002
3.5144513 -3.0183969 7.3930001
3.4036217 -2.9901459 7.3910003
3.5144513 -2.9909551 7.3930001
3.610621 -2.9497926 7.3930001
3.2968624 -2.9380574 7.3980002
3.6135514 -2.9247227 7.3990002
3.7480066 -2.8674676 7.3930001
3.4310913 -2.8392577 7.3910003
3.4448261 -2.8392577 7.3910003
3.4310913 -2.8255405 7.3910003
3.4310913 -2.8118234 7.3910003
3.3898869 -2.7981064 7.3910003
3.4036217 -2.7981064 7.3910003
3.6655753 -2.7988636 7.3930001
3.6793139 -2.7988636 7.3930001
3.6503551 -2.7840126 7.3900003
3.5547049 -2.7158036 7.3910003
3.705287 -2.7154362 7.3900003
3.610621 -2.6616554 7.3930001
-3.3260009 -2.6468599 7.3900003
3.5959094 -2.6335011 7.3910003
3.7092979 -2.5810747 7.3980002
3.7092979 -2.5673447 7.3980002
3.636622 -2.537138 7.3900003
3.8568714 -2.510047 7.3910003
3.3385572 -2.4715681 7.3990002
0.052334234 -2.4421222 7.3930001
3.2250688 -2.4414616 7.3910003
3.2250688 -2.4277444 7.3910003
0.066081733 -2.3738391 7.3940005
3.6823001 -2.3479805 7.3990002
3.4513514 -3.0232961 7.4050002
3.4651122 -3.0232961 7.4050002
3.4513514 -3.009553 7.4050002
3.4651122 -3.009553 7.4050002
3.6287718 -2.9808586 7.4020004
3.2999821 -2.9270945 7.4050002
3.3137429 -2.9270945 7.4050002
3.6980479 -2.8988252 7.4030004
3.7108021 -2.898042 7.4010005
3.6557884 -2.8843062 7.4010005
3.6557884 -2.8705707 7.4010005
3.7683599 -2.8587649 7.4060001
3.7561183 -2.8049209 7.4090004
3.2724602 -2.7484343 7.4050002
3.2862213 -2.7484343 7.4050002
3.2999821 -2.7484343 7.4050002
3.4532158 -2.7224178 7.4090004
3.5495939 -2.7224178 7.4090004
3.562881 -2.653307 7.4080005
3.4637084 -2.623683 7.4020004
3.4637084 -2.6099455 7.4020004
3.7561183 -2.5849125 7.4090004
3.5894446 -2.515141 7.4060001
3.7403295 -2.5148017 7.4050002
3.3390083 -2.485636 7.4000006
3.4499531 -2.4725702 7.4020004
3.4637084 -2.4725702 7.4020004
0.093663797 -2.4450951 7.4020004
3.5049741 -2.4313576 7.4020004
0.17617169 -2.3486152 7.4010005
3.6494164 -3.0690775 7.4160004
3.6769791 -2.9864964 7.4160004
3.3177702 -2.9719315 7.4140005
3.7050412 -2.9731338 7.4170003
3.2902153 -2.9581716 7.4140005
3.3039927 -2.9581716 7.4140005
3.4155948 -2.9318378 7.4170003
3.4413042 -2.9164989 7.4130006
3.45508 -2.8614671 7.4130006
3.4142134 -2.8205736 7.4140005
3.4279909 -2.8205736 7.4140005
3.357744 -2.7919238 7.4110003
-1.1871793 -2.7235203 7.4120002
3.5263355 -2.7119575 7.4180002
3.5401206 -2.7119575 7.4180002
3.5780962 -2.6681359 7.4110003
3.5918682 -2.6681359 7.4110003
3.773957 -2.6152344 7.4170003
3.2648602 -2.5608633 7.4190001
3.2906587 -2.5319593 7.4150004
3.6469562 -2.5305934 7.4110003
3.7571323 -2.5305934 7.4110003
3.6877744 -2.5164995 7.4100003
3.6877744 -2.5027473 7.4100003
3.7035427 -2.4903386 7.4140005
3.5795443 -2.4765787 7.4140005
3.426604 -2.4618223 7.4110003
3.5657668 -2.4628189 7.4140005
3.5795443 -2.4628189 7.4140005
3.7163174 -2.4621546 7.4120002
0.10763676 -2.4225192 7.4170003
3.2351048 -2.4215395 7.4140005
3.3022101 -2.4064806 7.4100003
3.4298406 -2.3815444 7.4180002
3.4436255 -2.3815444 7.4180002
3.399977 -2.3661811 7.4130006
3.6892674 -2.3661811 7.4130006
3.335592 -3.0857511 7.4230003
3.3507402 -3.086998 7.4260001
3.6962347 -3.0874138 7.4270005
3.6962347 -3.0736299 7.4270005
3.5834069 -3.0440114 7.4220004
3.6937466 -2.9889128 7.4220004
3.6247842 -2.9200397 7.4220004
3.6957374 -2.9078312 7.4260001
3.4730673 -2.8924904 7.4220004
3.4868598 -2.8924904 7.4220004
3.6385767 -2.8924904 7.4220004
3.6957374 -2.8940492 7.4260001
3.6957374 -2.8802671 7.4260001
3.7800629 -2.8538554 7.4290004
3.6277146 -2.812114 7.4280005
3.7494214 -2.8102212 7.4230003
3.6696193 -2.7849174 7.4290004
-1.2028975 -2.7279294 7.4240003
3.7494214 -2.7137856 7.4230003
3.5586965 -2.7018278 7.4280005
3.7632155 -2.7000091 7.4230003
-1.519595 -2.6992817 7.4210005
-1.5058044 -2.6992817 7.4210005
3.5586965 -2.6880419 7.4280005
3.4464109 -2.672816 7.4240003
3.5705764 -2.6039243 7.4240003
3.5015955 -2.5901458 7.4240003
3.2394683 -2.5625892 7.4240003
3.6272261 -2.5498407 7.4270005
3.6410279 -2.5498407 7.4270005
3.7105362 -2.5363984 7.4280005
3.2394683 -2.5074756 7.4240003
3.5843725 -2.5074756 7.4240003
3.8321872 -2.507138 7.4230003
0.1077964 -2.4950409 7.4280005
3.5996227 -2.494705 7.4270005
3.7376401 -2.4809213 7.4270005
3.7514417 -2.4809213 7.4270005
3.4464109 -2.479919 7.4240003
3.7376401 -2.4671373 7.4270005
3.7514417 -2.4671373 7.4270005
3.3815243 -3.076113 7.4330006
3.3953373 -3.076113 7.4330006
3.3815243 -3.0623181 7.4330006
3.3953373 -3.0623181 7.4330006
3.5196533 -3.0209329 7.4330006
3.5334661 -3.0209329 7.4330006
3.5196533 -3.0071378 7.4330006
3.5182328 -2.9921346 7.4300003
3.5044255 -2.9783452 7.4300003
3.7564929 -2.953546 7.4370003
3.4524457 -2.8707311 7.4370003
3.4363134 -2.8688011 7.4320002
3.6735709 -2.8569286 7.4370003
3.4386253 -2.8431261 7.4370003
3.6459303 -2.8431261 7.4370003
3.6592584 -2.8151426 7.4360003
3.6182897 -2.7879162 7.4370003
3.3427818 -2.7610536 7.4390001
3.6321101 -2.7603111 7.4370003
3.6454399 -2.7599401 7.4360003
3.5768287 -2.7465088 7.4370003
-1.4946276 -2.7316039 7.4340005
3.5468018 -2.7308691 7.4320002
3.4501245 -2.7170758 7.4320002
3.2727816 -2.7051013 7.4370003
3.2866018 -2.7051013 7.4370003
3.3004222 -2.7051013 7.4370003
3.2866018 -2.6912987 7.4370003
3.3004222 -2.6912987 7.4370003
-3.357811 -2.6611867 7.4300003
3.4810224 -2.6091855 7.4390001
3.743679 -2.5401545 7.4390001
3.3699768 -2.4984 7.4380002
3.3686178 -2.4835935 7.4350004
3.7273481 -2.4556656 7.4340005
3.3548009 -2.4421971 7.4350004
3.3548009 -2.4283984 7.4350004
3.6987231 -2.4274187 7.4320002
3.3548009 -2.4008007 7.4350004
3.3686178 -2.4008007 7.4350004
3.3824344 -2.4008007 7.4350004
3.2982032 -2.3998322 7.4320002
3.3548009 -2.387002 7.4350004
3.3686178 -2.387002 7.4350004
3.3824344 -2.387002 7.4350004
3.396251 -2.387002 7.4350004
3.3548009 -2.3732033 7.4350004
3.3686178 -2.3732033 7.4350004
3.3824344 -2.3732033 7.4350004
3.396251 -2.3732033 7.4350004
3.4238842 -2.3732033 7.4350004
3.629668 -2.3722458 7.4320002
3.7140329 -2.3732033 7.4350004
3.7258439 -2.3719265 7.4310002
3.6750526 -3.092818 7.4400005
3.6498523 -2.9567232 7.4450002
3.7071838 -2.9444871 7.4490004
3.7071838 -2.9306622 7.4490004
3.6923494 -2.8745911 7.4470005
3.8015287 -2.8734331 7.4440002
3.6923494 -2.8607702 7.4470005
-1.3311744 -2.833128 7.4470005
3.2879276 -2.8166571 7.4400005
3.3463769 -2.777844 7.4470005
3.3325379 -2.7640228 7.4470005
-1.2756474 -2.7360132 7.4460006
-1.2756474 -2.7221942 7.4460006
3.6102855 -2.7094662 7.4490004
3.249068 -2.5840023 7.4460006
3.414654 -2.5836551 7.4450002
3.2629051 -2.570183 7.4460006
3.4284892 -2.5560205 7.4450002
